# 3D point list with one line of data per point:
#   POINT3D_ID, X, Y, Z, R, G, B, ERROR, TRACK[] as (IMAGE_ID, POINT2D_IDX)
# Number of points: 382, mean track length: 4.3831670421628584
6145 0.31967645130392675 -0.52777836989023919 0.15238365864526612 247 212 133 0.48354381359030613 25 679 36 388 34 453 22 646 4 985
6147 0.1279379690224029 -0.43086836915759652 0.098560551288553927 238 200 119 0.47630827367553408 25 1411 36 405 34 448 10 1489
6148 0.27624017309974158 -0.50858269228127206 0.057779308297202889 206 169 88 0.80967452348304836 25 1459 36 407 34 559 35 1330
6149 0.80904152696721665 -0.61126014664965622 0.0042458860364218143 225 177 93 0.78965857566248165 24 1178 35 1766 36 410 34 391
6150 0.77096971305310591 -0.61671865072067888 -0.0081127692343336 213 178 86 0.98906046840678963 24 756 36 411 34 388 25 710
6152 -0.44351878418897284 -0.17864683449389368 -0.075682575811189756 198 163 82 0.48576441295209705 22 422 36 419 4 1242
6153 0.58950504864888731 -0.60645474617696826 0.11360680109128907 215 161 103 1.5762675952439993 25 694 36 420 34 951 13 1642
6157 0.089086240075020862 -0.2724350618639888 -0.20363904807464092 188 162 75 0.62017583148038113 28 847 36 451 4 1526 7 1247
6158 -0.47910295374405332 -0.18165395591536942 -0.058417169186913864 185 151 64 0.58503436275399634 35 467 36 456 34 621 4 735 7 904
6159 0.041329094632790053 -0.3366936370908522 -0.080972441442779292 225 200 110 0.73172120207040758 22 248 36 460 34 639 23 259
6160 -0.19996801384901014 -0.25105683854151273 -0.052522509224437769 192 164 80 0.53398840987768237 22 249 36 461 34 627
6162 0.95742358436284336 -0.54842718948327474 -0.13876603679278068 181 134 64 0.91782698857479139 35 857 36 466 34 650 10 396
6163 0.9333392394554918 -0.48105407592168825 -0.30380617640251395 178 119 58 0.7633709528086795 35 451 36 502 34 1065 4 276
6164 -1.0919981521415432 0.036773504759262055 0.071566078781441458 95 87 65 0.73495193119141744 16 311 36 507
6165 -0.46031459285570947 -0.22619884405375335 0.17390943013943072 202 175 87 0.48654537268972425 13 441 25 380 36 516
6166 0.86788674564025015 -0.3702351024432381 -0.37890802876098406 166 105 42 0.69313672802987458 36 517 4 284
6167 0.86921779576652347 -0.44948593692014149 -0.38188614623031103 202 145 68 0.79585524026572352 28 815 36 519 4 282 1 306
6168 -0.52398399357551895 -0.17928112063041735 -0.028345150711980766 183 152 69 0.5697960167048729 35 419 36 534 34 612 4 1116
6169 -0.49530205703816865 -0.2093179491935564 0.025085373933504657 177 156 65 0.20721009146232586 22 237 35 723 36 545
6170 -0.52440346091911794 -0.20799508090921937 0.044231617375957932 215 193 107 0.69047848471636619 22 236 36 547
6171 0.73742091604129179 -0.6151235584801783 0.012452299350041801 231 185 95 0.43783488591718012 22 1569 36 573 25 1481
6172 -0.3062937038298098 -0.27983651274732568 0.13153229172515418 232 201 118 1.1700406143871307 25 945 36 587 34 742 4 1101
6175 -0.94595983547571094 -0.077647167890893765 0.054368643882432899 177 156 75 0.7584994638204422 13 1175 25 2289 36 625 34 1626 24 1795
6176 0.92677350772838407 -0.56307481759540079 -0.14640743876141107 154 99 34 1.5998702436892607 35 1314 36 630 34 1388
6177 0.93970515369325569 -0.55193318400177005 -0.15380855335173818 181 137 64 1.0212169753499185 35 1381 36 632 34 1114 10 617 4 718
6178 -0.49371881850925187 -0.18789394741774701 -0.040991883458654621 209 176 97 0.7405534474639196 24 680 35 911 36 635 4 1470
6179 -1.1062941817239462 0.062115322804218803 0.036520104944116338 167 147 84 0.68754588854995013 35 2177 36 641 34 1881
6180 1.003707580214632 -0.51866827663490744 -0.17781885610546685 184 132 69 0.944920973592836 35 867 36 642 10 419 4 406 11 1609 7 388
6181 -0.58558225054236634 -0.098004129812513718 -0.089834020483153532 193 177 88 0.63921308825702605 22 551 36 655 7 1471 35 932
6182 0.35562404482648413 -0.46994809224754064 -0.22947633865206921 222 181 101 0.56344754373951178 23 754 36 656 4 1675
6183 0.58939874684325222 -0.53611985100145143 -0.29467708086587163 173 115 38 0.69521568501013764 22 1885 23 844 36 668
6184 0.11329680554083127 -0.29177070069843392 -0.20776162546773172 217 198 104 0.32789262039611494 22 329 36 669 34 1112
6185 -0.46988547669489622 -0.089074388511685754 -0.13610790110392987 200 154 76 1.6247033209778781 35 945 36 670 4 822 7 847
6186 0.26098939713519831 -0.37778442382027821 -0.26390702667513566 224 195 105 0.43051624631567487 16 1523 36 679 34 1599
6187 -0.21699676791056646 -0.10236485060996126 -0.18233612342690089 250 213 124 0.15542765639237816 23 528 36 686
6188 0.031324036532421606 0.022064269413229864 -0.31230911650576265 204 192 120 0.017635268045558816 22 130 36 719
6189 0.4365584339944355 -0.31116066512101737 -0.44654235049569446 215 161 89 0.49658060124731424 35 531 36 725 4 1616
6190 0.79401628528166568 -0.27532644089631075 -0.51952356512244424 182 125 54 0.69921034177531338 28 580 36 741 4 603 1 252
6193 0.6252079383762088 -0.61176478555038705 0.10332881456373319 251 205 127 0.43049776903315745 22 1139 36 772 34 596 11 1337
6194 -0.52250100304047364 -0.21099066967974633 0.17695940992103087 207 177 92 0.13793629021395268 25 1008 36 781 34 910
6195 -0.1177995738704645 -0.32000714486592974 0.085012508227055306 252 226 140 0.49346337066831159 22 1567 24 793 36 787
6196 -0.9484895146966047 -0.076652834615032417 0.054584341872932027 177 156 75 0.99712149909972525 25 2308 36 799 34 2063 22 475
6197 -0.29198646414060075 -0.24559479055409139 -0.019815646648881413 187 161 71 0.61098867963195935 22 674 36 801 34 1355 4 1449
6198 0.94065887657030078 -0.55178487532941356 -0.15238447460226687 181 137 64 0.91712889832198474 35 1311 36 803 34 1390 10 679
6199 1.0625272174103402 -0.26184758388803508 -0.43647940126233276 177 122 65 0.87752626178898829 35 1077 36 837 4 1622 7 428 28 1800
6200 0.53192570405969408 -0.58435543419619074 0.28439421794389708 226 175 109 0.87852438780961972 22 726 36 871 25 661
6201 0.65829028295480685 -0.59471079610327504 0.27659756552405967 238 210 111 0.87419094460181912 13 1263 25 666 11 1460 36 872 4 634
6203 0.73142723904581408 -0.61402649084459515 0.19449893439738491 192 145 67 1.1552903305697364 35 1743 36 883 25 684
6205 0.67939281336247392 -0.6140627538625284 0.11982547964274093 221 173 94 0.83917937522449693 22 1512 36 899 10 431
6206 0.62347191320633388 -0.61284426264806313 0.10318286334934373 251 205 127 0.30513053444786975 25 696 36 905 34 759
6207 0.33944372294702785 -0.53791508035549263 0.11391555569374624 243 201 124 0.27755997717945757 36 913 34 753 4 1078
6208 0.99982455649836188 -0.53659160664718752 -0.11718310915242683 188 128 71 1.2962442770319607 35 856 36 932 34 799 10 1164 4 419 11 617
6209 1.4433115072966622 -0.12793713730667799 -0.18543310836060775 104 133 147 0.12463574765239765 22 1012 10 1161
6211 0.8171111808581859 -0.57709019878873757 -0.18545876854033441 194 130 66 0.80532193434968125 35 1313 36 970 34 1025
6213 0.97402967142952446 -0.52815161811198075 -0.17850868922716126 181 134 65 0.8581237221562138 35 1302 36 983 34 1574 10 674 4 727 11 1730 7 966
6215 0.69303241664303072 -0.61876510117337058 -0.0065134477035178884 231 179 103 0.53705017648263331 24 1496 36 994 25 2317 34 980
6216 1.3420266028646273 -0.31326784826394316 -0.11270938215249524 101 141 151 1.7575861123949144 23 1593 36 1000
6217 -0.020342994496235445 -0.26746594348620334 -0.12294593463965706 150 115 40 0.29719335923087198 22 960 28 850 36 1006
6218 0.91843458081811247 -0.53655383017618041 -0.22854784234194495 181 122 64 0.40351119895251458 35 1840 36 1012 4 738
6219 0.36010533297012259 -0.45707352790489364 -0.2412066647826013 194 152 70 0.86839857375870233 22 988 36 1021 4 1507
6220 0.38047391971264855 -0.47610128692212117 -0.23303897258622583 209 169 81 0.36950060593470258 23 753 35 814 36 1034 34 1595
6222 -0.35442230892512688 -0.082920727443533071 -0.16174502807860205 224 188 97 0.19530892843201417 28 911 36 1083 7 842
6223 0.89410262940045326 -0.46178418278738742 -0.34733416229674063 165 102 42 0.67199856397366098 35 1237 36 1093 10 1211 4 787
6225 -0.25634049870417436 -0.017442968486543697 -0.19942815469211697 215 183 97 0.66102069113654571 16 407 36 1095
6226 0.56946721971805747 -0.60592574415297373 -0.0026224811845260154 217 168 92 0.46589647292883241 24 1503 36 1104 34 633 4 1371
6227 0.78365157213730563 -0.61731685185394192 0.010653895633669558 186 142 55 1.4684981537513415 24 902 36 1165 35 1760
6229 -0.23966092416327844 -0.29596971626040525 0.17198610379397042 204 177 90 0.24249907284623462 25 1947 36 1174 34 1324
6230 0.41841420886313452 -0.56037460759925972 0.051059126712767314 217 169 106 0.48093225466388628 25 1467 36 1176 34 1101 11 1502 10 1449 4 1359
6233 -0.0523258459764471 -0.3373822244836332 0.2980462154689657 244 209 127 0.34041097117770303 22 1076 36 1222
6234 0.34459355210707565 -0.53531639985757062 0.19593774998199623 222 181 107 0.16373881218148298 25 1154 36 1223 34 919
6238 0.65069250400065526 -0.59238842746585352 0.29571327099990063 198 162 70 0.59198753662207249 22 1610 25 1407 34 1306 36 1261 11 979 10 786
6239 0.51340022060464707 -0.26124610265272807 0.51502151279150765 247 199 135 1.2354012644842605 13 30 36 1263
6240 0.1142198791124745 -0.41276117623405884 0.24255398571505352 206 171 95 0.44859019775283765 19 580 36 1309 34 462
6242 0.11294506081179545 -0.41458989607584085 0.22409388204145581 255 221 151 0.62991533929507115 25 651 36 1311 4 1333
6243 0.70144848644080771 -0.3782307768169495 -0.47142669703466822 238 179 109 0.46683665320557344 23 890 28 578 36 1320
6245 -0.016473331035228994 -0.34924154579752209 0.012586806031664247 177 154 60 0.1912167864805768 23 1767 35 1291 36 1344 34 2171
6246 0.37055121688853254 -0.51353842766457281 -0.13131783485466611 196 162 69 0.51410255772957392 22 1170 36 1354 4 1718
6247 0.83722920327805794 -0.45358238293611808 -0.37786818786691001 217 156 85 0.63675874921163689 35 1408 36 1404 34 1419 10 1803
6248 0.8967513232014428 -0.32956486407011221 -0.47158050673077079 207 149 75 0.46646124965021785 35 742 36 1430 4 598 1 493
6249 0.91875914782794466 -0.24940426921093273 -0.50441870551538959 193 144 77 0.51503491280377334 35 757 36 1449 7 505
6250 0.14732236543185473 -0.43553646490220976 0.019781465438804505 205 182 86 0.23192240968296227 22 918 35 1938 36 1487
6253 0.9649971929300396 -0.40142371566839619 -0.38123513566371536 173 114 48 1.0182193979766059 35 2118 36 1536 7 611 10 1215
6254 1.2731274517075439 -0.17779494700479614 -0.31266329109720914 112 132 141 0.11194308079325142 22 1967 34 555
6255 0.96584289042008331 -0.22532972988175448 -0.4999055719891472 190 128 71 0.6577042465432692 35 1149 36 1636 4 1795
6260 0.36829817911831153 -0.53225888205357996 0.27354834444912224 236 198 130 0.40829842173993547 25 2193 36 1727 34 2037
6261 0.40633881975761299 -0.5555671646375544 0.24200695498394686 234 189 122 0.77042928359613272 13 1379 25 2222 36 1740
6264 0.2427205333191973 -0.48267401409061761 0.24509143753163781 228 191 110 0.56289568068406981 13 1341 36 1757 34 2051
6267 0.066887716810575371 -0.38478232538678736 0.29171890004572765 254 223 131 0.37620886015352023 13 1990 19 1193 36 1764
6269 0.35387548929499102 -0.53931401435271309 0.18582698250560598 250 211 134 0.1977145818478904 25 2236 36 1779 34 2090
6270 0.38112541754651463 -0.55090564830628863 0.18081535695600023 228 191 113 0.20292475061021265 13 1410 36 1780 34 1495
6272 0.32345548337388419 -0.52847292282780767 0.17947976862589052 202 163 90 0.61063693495043536 25 1159 36 1783 34 926 24 1109
6273 0.34433521462983385 -0.53699877138290109 0.17695939637382702 227 189 114 0.27142237745870351 25 2242 36 1784 34 2100 24 1598
6274 0.14885326075242622 -0.43352271766178385 0.21446984387493029 235 203 127 0.3116109400890934 25 1953 36 1790 34 1467
6275 0.34187685330103501 -0.53484345319872473 0.16195185297855902 253 216 140 0.16408472458369727 25 1977 36 1791
6276 0.22737400390856782 -0.48724684651219985 0.17897657770026767 231 205 121 0.55080679047643011 22 1498 36 1794 34 2095
6277 0.61448994715594696 -0.61283300827448572 0.11793115130009281 228 178 109 0.84329219839014846 22 1515 36 1802 34 1060 24 1556 25 1550
6279 0.2732864111613178 -0.50734517846035698 0.14645903067847788 208 177 89 0.25130492248554476 25 1165 36 1813 34 1505 24 1582
6281 -0.11774976845760643 -0.33145106737843433 0.19132671421415182 218 181 101 0.26546227074654433 13 1311 36 1836 34 2071
6283 0.13756496788685502 -0.43823921093056617 0.11425044124332846 212 169 91 0.33977845736836781 24 1567 36 1849 34 1882
6284 0.078752238860292367 -0.40600932929497613 0.12511149111820005 228 175 114 0.1199162757199809 24 1580 25 1968 36 1853 34 1878
6287 0.40419281313208222 -0.55505374147482456 0.026372974961267601 173 115 67 0.24758356064857326 25 1574 36 1875 34 1126
6290 0.2427205333191973 -0.48267401409061761 0.24509143753163781 228 191 110 0.56289568068406981 13 1762 36 1926 34 1847
6291 -0.046356451607806881 -0.35291740386508008 0.24255002524500296 254 219 133 0.34701657376232592 24 1649 36 1938 34 1443
6292 0.12236696115446505 -0.42260447648160016 0.20441561430265306 225 190 108 0.17049984813212085 25 2181 36 1940 34 1473
6294 -0.19492865872764045 -0.31215256886819809 0.22015844800082418 252 222 136 0.44782746816296631 25 1940 36 1950 10 1661
6295 0.94242330919407813 -0.54813748435906984 -0.17009459520485845 141 99 17 0.78574396993440554 35 1943 36 1993 10 858 4 1112 7 1355
6296 -0.26008407107754666 -0.23332141267055317 -0.060374499879949473 195 173 73 0.21997059543475975 22 1822 36 1999 34 2208
6297 -0.15722793431035104 -0.16904565741905048 -0.1523160040127097 240 213 124 0.6878498693857068 16 1614 36 2028 7 889
6298 0.94217323357607152 -0.43110486255282787 -0.35983140228387867 153 107 31 0.69821430682067498 35 1977 36 2045 10 1808 7 603
6299 0.3553439524232922 -0.37581071752365069 -0.35277960487400306 224 187 98 0.033579982741585662 28 1745 36 2049
6300 0.84549223357033321 -0.41722119369299693 -0.41832044094720788 206 142 80 0.57796353570951742 35 2127 36 2063
6301 0.29727715540634181 -0.29708663605852559 -0.38555833924049976 215 177 90 0.20269037460162118 16 1577 22 1333 36 2066
6302 0.25772021180696569 -0.48737459933599536 -0.017845040151119929 215 182 99 0.46606885280925964 24 1504 36 2123 34 2218
6303 0.046597264744028477 -0.3653977839728042 -0.033749927235437016 226 200 114 0.38539115413173658 23 1525 36 2162 34 2210
6305 -0.4731171138866137 -0.20966298304797937 -0.011916990563048485 184 165 73 0.69248800498175633 22 1792 36 2176 34 2170
6306 0.048134064620329375 -0.34688881579874831 -0.070537600861522609 223 195 110 0.34137032085906566 22 822 36 2179 34 2237
6307 -0.48479426616062704 -0.20369430877698902 -0.013263765542634587 211 190 100 0.39871920095246882 22 1166 36 2180
6308 -0.26008407107754666 -0.23332141267055317 -0.060374499879949473 195 173 73 0.21997059543475975 22 1680 36 2198 34 1901
6309 0.90574107494774458 -0.54999041461204823 -0.1934474935384414 156 96 36 0.97034080738460315 35 1822 36 2212 34 1585 10 1846
6310 0.40812949273254595 -0.49465307876233089 -0.2248618788859458 210 170 83 0.60781968652346607 23 1052 24 1898 36 2250 34 1592
6312 0.04422754086939984 -0.27544657782036952 -0.16395986449994424 237 202 121 0.28700261369177626 22 984 23 1590 36 2267
6313 0.26556170595031203 -0.41539026499731313 -0.22314532845389981 187 157 69 0.45519065820873167 22 1867 36 2276 34 1934
6314 0.874030689416464 -0.52950937750396709 -0.26220831769869435 189 131 56 0.51294753577608354 35 2411 36 2277 4 1501
6315 0.14521747985424915 -0.32698568639828329 -0.19734191236617268 212 185 99 0.95139568711542533 16 1546 35 1913 36 2286
6316 -0.38849350378827974 -0.091280233568750091 -0.15225754802896532 211 169 87 0.40930989150552594 28 1214 36 2309 7 1485
6318 1.3560697494725265 -0.16253547383430067 -0.20681102878342036 100 73 62 1.7470963808241333 22 1015 36 2335 11 1481
6319 0.23254415746882634 -0.34449975434563052 -0.27743551707347103 206 168 85 0.32420843322296855 16 1544 23 1604 36 2338
6320 0.00015949509825124997 -0.37055876772451313 0.1387472092166096 217 181 103 0.87102558782167971 35 1809 13 455 25 390 23 513 24 287 22 227 36 402 19 1203 34 430 11 991 10 1061 4 1370
6321 -0.056283468881383303 -0.31264441096984652 -0.031431736011046679 221 185 96 0.7348273304420524 16 1094 24 367 36 472 23 752 35 1827 13 1423 24 1519 34 623 10 1412 4 1197 7 937
6322 0.22948529144274782 -0.47399393785220212 -0.010026319921250748 245 209 128 0.54337145272345921 35 852 23 514 13 656 36 601 25 1464 22 499 34 626 4 1397
6323 -0.38103777611889955 -0.11513285457147593 -0.14071514889795608 236 201 115 0.32184913782718105 28 441 1 600 36 664 35 939 22 558 4 1520 7 841
6324 0.16343148582763112 -0.30801478732002741 -0.2412751024489361 210 176 94 0.5018468445732841 14 1671 16 720 22 690 36 678 35 916 23 658
6325 -0.25063888266501988 -0.082703961517377855 -0.18371882528346908 197 176 80 0.52130683814032042 28 915 1 909 36 940 35 744 23 673 22 1211 7 1394 4 1556
6326 0.23473072262585037 -0.37052351172051157 -0.24757091293719982 231 199 104 0.61329029126851509 16 504 22 568 36 1007 28 1311 35 906 13 1590 23 1586
6327 -0.016698667368420933 -0.2146418989112131 -0.17747353266181512 246 210 124 0.65197016178582623 16 839 28 1264 22 563 36 1073 35 2138 23 1754 7 1449
6328 0.069106121781754737 -0.23921502143293705 -0.21396856676856149 154 143 86 1.497907578130524 22 334 36 328 35 232 23 142 24 176 16 247 7 1446
6329 1.2571836708118704 -0.21153601870949235 -0.26185605109232835 116 70 46 0.79036538547346313 22 119 34 201
6331 1.2300690638985348 -0.0098856581059146853 -0.38930600878899113 134 88 55 1.2869937837365053 22 132 36 348
6332 0.47820119566499464 -0.56263201750664638 0.31907362989882393 217 169 107 0.61390763101878032 25 510 36 449
6333 -0.37249940508627138 -0.25045151172964175 0.047706897197050055 233 207 119 0.31177714433022491 24 382 36 612 10 1090
6334 0.6457958668002779 -0.6158922418258661 0.020048892327613921 236 189 111 0.66153815350662748 25 1590 36 1173 34 961 10 1403 4 1087
6335 -1.1277261354940706 0.10930378184767819 0.024661855358525719 92 90 75 0.074215765834491437 22 369 36 2392
6336 -1.1115166414044004 0.11540978188472076 0.05117387323151007 112 74 46 2.5227052623509651 14 52 16 28 29 111 15 28 26 110 23 27 30 63 36 162 28 102 35 127 27 98 7 431
6337 0.66112597817887631 -0.61053632993724427 0.13578190515818225 183 139 62 0.43770695563713719 24 792 22 1506 36 1213 13 1655 25 1461 34 943 11 1091 10 735
6339 0.61184297632052287 0.23993888995478924 0.50741960398531416 254 207 141 1.9897913782815537 25 1 34 1 10 0
6340 -0.92996825211137857 0.15482440974299849 -0.011958892540022886 220 207 128 0.99794937796569316 22 12 34 10
6342 1.0420237773272123 -0.54837706456946156 0.094099262046896628 160 107 50 0.19316013817561101 36 94 34 55
6343 0.20132692986997075 -0.45360548619881036 0.28129315588089909 212 172 100 1.2036424795683993 19 213 24 88 34 96
6345 -0.37307807243771463 -0.26291788089780344 0.14978088403847642 228 213 121 0.22504622539578437 24 119 34 106 10 271
6347 -1.1843834473975106 0.043608362188411354 0.04599464784255089 223 194 119 0.31931569963079209 24 46 34 131
6348 1.1306445432920191 -0.41104614065987932 0.39268058160143315 156 102 60 0.90995948312314623 25 179 34 167 9 124 11 60 10 44
6349 -0.20449426302213267 -0.26999815542088701 -0.0087260408977548609 246 220 125 0.34912514097061909 35 184 34 177 7 247
6350 0.52632022899919095 -0.60136815564973511 0.023998197366048885 176 122 50 0.42502875344425495 23 323 35 429 34 182
6352 0.16178832881941052 -0.41553258777072721 -0.065890272014199502 200 156 81 1.4573881191365654 22 149 34 211 4 562
6355 0.71030551707353984 -0.62333183388908597 0.12222914081192389 194 134 60 0.99754608233137476 25 413 36 301 34 219
6356 0.83778266269018253 -0.60097711792295505 0.17396963550993338 177 114 48 1.4479908789335927 25 281 34 228 36 377
6357 0.79559046790077703 -0.60938533034616049 0.20851806457230093 200 161 66 1.4629374730832991 36 299 34 232 25 578
6359 1.1368702960983794 -0.39913264785335334 0.38961469357707879 156 102 60 0.21893932214139961 25 238 34 249
6360 1.2302851750382868 -0.17494584008167935 0.49689873177878185 164 110 81 0.80817070498872989 24 65 34 260
6363 1.1622301275675277 -0.41246389519144533 0.35393121806562422 186 146 86 0.80843776370378906 25 566 34 294 9 192 11 94 10 81 4 195
6364 0.085622118562247496 -0.38628756538001452 0.31176787760641533 255 222 141 0.59707598563578512 24 437 34 296 10 996
6365 -0.49160910175665656 -0.21628853256262426 0.18660154659477263 236 210 118 0.70804338909314291 25 254 34 311 10 761
6366 -0.54440533077241404 -0.1985288400557339 0.027926835210409104 175 154 66 1.2487985523004761 35 562 34 319 4 1435
6367 0.38153327934936043 -0.54428941508269257 0.067126360064197935 210 156 84 0.61032956734898602 24 608 34 321 10 724 4 960
6368 -0.048676367044223789 -0.33475697142228156 0.01707843575387949 236 212 118 0.20953426670964959 24 162 35 371 34 324
6369 -0.34364360122917381 -0.22062176975305903 -0.045869214866126218 247 222 132 0.50617432359973746 22 191 24 106 34 331
6370 0.93152645537784573 -0.57462850246446173 -0.038779229890148731 160 106 44 0.92598711303185566 36 229 34 338 10 125
6371 -0.047092310111479158 -0.27849228765524536 -0.093912025119630371 238 215 122 0.80865908350678861 35 225 34 339 7 216
6373 0.39833699006391932 -0.49216486511944535 -0.21546282603694847 237 196 116 0.64243607998093544 35 373 34 351 7 574
6374 0.84913780942529815 -0.59531005838108397 -0.011422343075307456 200 153 68 0.73738694784995418 22 1157 25 709 36 266 34 363 11 505 10 295 4 186
6377 0.8625491585826095 -0.59879905231335517 0.034816710855375105 163 104 39 0.85875683273074532 25 706 36 403 34 398
6378 1.0020896270637842 -0.55689858275264947 0.03934852076181064 148 94 32 0.51643253105940257 36 553 34 402 10 286
6382 1.0221990654836626 -0.54667506521263709 0.091680715131746998 184 130 70 0.8898967911646084 25 1453 34 415 11 596 10 283 4 207
6383 -0.52465760900983549 -0.2023269208160926 0.041228904409974398 214 194 107 0.39089187619646221 36 477 34 416 4 1432
6384 0.63477063120245392 -0.61537125805237158 0.058443588023592188 220 185 85 0.79830997913589419 25 1427 36 398 34 442
6385 -0.2371572179156109 -0.29927172683147341 0.12514138180067511 209 184 92 0.71347977418039554 25 1397 34 454 11 1036 10 371 4 252
6386 0.80857990851587447 -0.60778206544288416 0.0041694265203583714 211 166 80 0.30796892902478662 24 905 36 548 34 470
6387 -0.096774101915448663 -0.32665622774060143 0.27571423448435706 234 209 116 0.89620867716340247 19 1145 24 347 34 471
6391 1.0418744860003633 -0.48475530496365027 0.37426957616400303 204 156 97 0.56161752799874087 36 869 34 514 11 225
6393 1.1242215146965344 -0.39098334202804685 0.43161045938260667 193 150 99 0.70325627833662274 25 500 34 530 9 329 12 1004 11 143 10 208
6394 0.21705904442775303 -0.35964926933593411 0.46326716643755972 252 214 129 0.38537056475538917 32 154 34 538
6395 0.80217184796203567 -0.48389685321222675 0.49252209741955466 213 162 96 0.68083403031251821 25 523 34 564 11 230
6396 0.76469103987620524 -0.61088686746084531 0.21056202381244343 202 157 66 1.4081146057688068 25 1417 36 762 34 589
6397 0.76469103987620524 -0.61088686746084531 0.21056202381244343 202 157 66 1.4081146057688068 25 1436 36 881 34 594
6398 0.49403363583226079 -0.59354766660719971 0.097974638809667391 182 128 55 0.38574525952212185 13 1641 24 1988 34 597
6399 -0.49643337433075529 -0.209861075022163 0.025931184367133236 181 160 69 0.42833247186153195 35 903 36 474 34 598 10 1770 4 1437
6401 0.96685354878481355 -0.56974372613101354 0.055021133260667321 185 137 62 1.1429499089813548 25 1554 36 929 34 607 10 348 4 328 7 792
6402 -0.45513174161570469 -0.20975653814372741 -0.024645230012741298 201 171 82 0.51318562553402736 24 685 36 465 34 614
6404 0.55503090124295162 -0.60441390814830698 -0.013214892233192443 218 173 90 0.21545970786412885 24 1186 34 637 10 702
6405 1.2866048037332221 -0.37015534056503929 -0.13516608848889158 109 148 160 2.6702733931222058 24 180 34 648
6406 0.89105227364574646 -0.5593732159544027 -0.16478798208276044 162 108 36 0.44275448302600423 36 535 34 660 11 1912
6407 0.75309824431961858 -0.46465205288702705 0.5451518376772706 189 140 80 0.54704083193200892 32 569 34 698 9 835 11 475 12 2023 10 929
6408 0.0047965735429322254 -0.36110375225779812 0.28529379096457663 217 165 90 0.40618383054310953 22 1123 24 559 34 717
6409 0.86154548539711207 -0.59854743001627242 0.19462361014041443 207 153 79 0.69781233078623828 25 1980 36 887 34 739
6410 0.66065985894984725 -0.61191092684375303 0.13550979468668511 188 150 53 0.44307995999105598 24 696 25 1421 36 1310 34 750
6411 0.70946278608286428 -0.61615380239751405 0.042183432394550135 183 135 53 0.6523419481286995 25 2004 36 1323 34 767
6412 0.90328350094705834 -0.58245976500885099 -0.048232565438009911 196 141 77 0.81106555047878237 36 791 34 776 10 405
6413 0.79101300219047199 -0.46211553439375475 0.54674855119658705 230 178 117 0.29202484009072843 32 568 34 791 11 848
6414 0.90771036609573108 -0.50290173533582394 0.44377191467713495 220 163 94 0.46319864836157493 25 620 34 793 11 455
6415 1.0625324428409597 -0.46600932856440969 0.36345157126226779 155 115 55 1.1337091198080513 25 1065 34 862 9 483 10 324
6416 0.61852875207285396 -0.58431300054778557 0.31675152803205314 196 155 68 0.13242081933751251 13 1760 34 873 10 793
6418 0.42598957360801271 -0.55501941167646129 0.26954435339691768 230 188 104 0.56758227375180681 13 1260 22 1442 34 890
6419 -0.5560837522563481 -0.1947895177149962 0.19953289912056985 187 160 81 0.28013418637795257 25 627 32 1010 34 897
6420 0.56191947215325799 -0.59289798428892149 0.24125948992424709 215 172 87 0.62031940638069805 22 1460 34 900 10 1024 11 1466 4 1850
6421 0.74044481148444019 -0.60833654202017828 0.23052183591682587 181 143 46 0.71281114704714255 25 1163 36 1250 34 908 10 650
6422 0.72354530969856923 -0.60793781389407364 0.22025916831441564 212 177 78 0.74757790524221845 24 1612 25 678 34 912 36 1246 11 589 10 485 13 1282
6424 0.67242695425703924 -0.60669532608571985 0.19900272735831623 226 186 92 0.43790479143287697 13 1782 22 642 34 920 11 522
6425 0.86222528646102137 -0.59581732713956059 0.19463877178591274 207 153 79 0.6190884761726424 25 2254 36 764 34 925 11 591 10 375 4 647
6426 -0.47512144028893699 -0.22670801017972453 0.068538650710426308 223 209 112 0.91495918525271736 22 470 25 2174 34 944
6427 0.85333734089407098 -0.59698776924079655 0.020004713507049299 198 147 74 0.63798727414606393 36 1162 34 958 11 1101 10 714
6428 -0.57044464048497945 -0.12494920011168353 -0.075860516863803129 220 204 119 0.40469411274041778 36 415 34 970 4 792 7 804
6429 0.89891221991950121 -0.58304751510320918 -0.018887435201256908 206 159 76 0.67846799494594956 25 1587 36 1886 34 982 11 1535 10 1141
6430 1.3388456830493756 -0.31573040937038721 0.22079547169127281 97 87 88 2.0564282994356686 36 2405 34 998
6431 0.96701580776875873 -0.56522535597990575 -0.053662915779659676 194 140 79 1.1035135500017625 36 1498 34 1003 10 404 35 1325
6432 0.35511181952564741 -0.52363810490319918 -0.06220126234908932 187 137 66 1.3271166308563129 23 1097 36 1974 34 1007
6433 0.93596845885740554 -0.57068696868078261 -0.06950640039027195 199 149 82 0.80862684963413822 36 1506 34 1015 10 692 4 557
6434 1.2857736772351249 -0.32183202775159048 -0.1434416359514831 112 82 70 2.7729843604191959 24 311 34 1021
6435 0.25415792057218134 -0.45269477148940129 -0.13105798787731468 226 197 101 0.61457714754780068 23 1641 36 1359 34 1037
6436 0.93946555980496216 -0.5358082306484323 -0.1854036142217805 195 150 77 0.31649875735261862 36 640 34 1062 4 728
6437 1.0426612594934597 -0.54560944067953543 0.10229197735783967 147 92 35 0.81965725375824772 36 1837 34 1063 10 732 4 666
6438 -0.13522690986725794 -0.30963272949631804 0.056719152676742796 211 185 92 0.34510900364116387 24 1136 35 1287 34 1067
6439 -0.40367041518821034 -0.24072898854642555 0.039444417996241404 207 182 90 0.47412310534789531 24 1137 35 1259 34 1070 4 1183
6440 -0.51264238033186027 -0.21777250416845118 0.099471190572238077 197 178 83 0.26125828229039416 25 1054 36 1492 34 1073
6441 -0.024818088498077706 -0.35362479036684102 0.054389798301556755 203 180 86 0.28265385711928814 24 892 35 1836 34 1076
6442 0.88544807046997431 -0.50551899482859364 -0.28774202930224946 191 143 59 0.30907812760510578 36 511 34 1077 4 346
6443 0.70206605451194959 -0.61754152368686721 0.091265243465722706 212 159 79 0.38347022997332242 25 1998 34 1085 36 1944
6444 0.95234817024873375 -0.53586682193649859 -0.16808499650199996 154 108 35 1.2612152465658582 36 459 34 1104 4 261 11 622 7 337
6445 0.65760111831024459 -0.61634364893951255 0.051772491890483135 224 174 84 0.83788693557431548 25 1580 34 1108
6446 0.68220024582273231 -0.58952289809080338 0.32143799597871492 232 192 107 0.30382335691054629 24 1916 34 1125 10 794
6447 0.77614175493613624 -0.61132339547745584 0.026218743086612942 209 172 81 0.40261982613059716 25 2319 36 1858 34 1132 11 2161 10 1120
6448 1.192974528368967 -0.39304683289666997 0.34178096727162943 142 94 56 1.0334464657607745 25 625 34 1147 11 186
6449 0.4187902828725466 -0.52863869505678773 0.35337679950352963 218 171 93 0.1303556949110623 24 1041 34 1150 10 1910 13 1306
6450 -0.099069651068377729 -0.28326514194727448 0.36052927426200598 230 180 103 0.50913833373776718 13 934 19 981 34 1161
6451 0.47735938643673714 -0.52052557128500776 0.41168302278040603 255 207 133 0.11023861977806396 32 971 34 1172
6452 -0.44871785866126335 -0.0021203022622116041 0.40456912540322643 193 172 107 0.10372062990989475 24 992 34 1176
6455 1.061721838851754 -0.5386650915177098 0.5659420958821908 182 150 111 2.0358993970755423 25 1906 34 1263
6456 1.0823295366264556 -0.45882633089388736 0.36215115025515643 189 140 86 0.72695759507266122 25 1932 34 1290 9 1024 11 904 10 510
6457 -0.10192855469126752 -0.30695058125050756 0.32763034293786275 254 220 134 0.36200970556576251 25 1923 32 1761 34 1293
6458 -0.27384920765542986 -0.24652182234816744 0.3027072194897899 213 179 94 0.19447207089989477 32 1018 34 1300
6460 0.68936482510097841 -0.60786915550768095 0.20815839041930445 190 154 58 0.76618706217002164 25 1983 36 1921 34 1326
6461 0.29095544200799006 -0.51127819893237603 0.15185116182062286 225 191 101 0.19295312277761112 25 1414 36 1807 34 1333
6463 0.77664707017751078 -0.61179729610077815 0.026386095188802181 209 172 81 0.40354270314308582 36 1959 34 1362 11 2149 10 836
6464 0.96732021768366572 -0.56332499083359966 -0.052350572798936623 194 140 79 1.1336300717342778 36 1339 34 1374 10 425 7 756
6465 -0.46204714174223815 -0.20438678216709305 0.24615082647327158 220 195 95 0.33959453210468354 24 590 25 1285 34 1435
6466 -0.08536508478394611 -0.34537586381197072 0.20748383610526752 194 164 74 0.57924090661632632 24 1634 34 1465 10 1439
6467 0.85630994622323042 -0.59000323370554364 0.21050558465638566 160 125 31 0.68001118183060538 25 2244 34 1479 11 588 10 383
6468 0.97244380486923943 -0.56838671093501369 0.20644783347724543 202 143 85 0.62726952901292288 36 1228 34 1480 11 586
6469 0.69012525283332937 -0.60643730620622294 0.2077039961530982 190 154 58 0.68222354987924871 25 2257 36 1747 34 1483 10 1664
6470 0.03887091284004518 -0.38717485109003902 0.16919332331908465 180 135 67 0.58398240780726096 22 838 24 1611 34 1487
6471 0.46143900994069975 -0.57596689520704614 0.18896349384547173 183 132 58 0.33093551056623072 13 1415 24 1603 34 1489 10 1524
6472 -0.031980270828231683 -0.35908210824652065 0.14102102562322366 210 184 94 0.14677841062015662 24 1596 36 1857 34 1498
6474 0.69461842456718881 -0.61347373604996414 0.16709122029521678 183 149 51 1.1435746879626252 36 1226 34 1503 10 1058 34 2115
6475 -1.0817344108660527 0.04284973808673942 0.049693198774749828 148 125 75 1.0195931386923516 36 973 34 1509
6476 -0.52390663929590708 -0.20704307036493141 0.081256008722061596 218 197 109 0.65014564532325891 36 609 34 1511 10 1490 4 1411
6477 0.96459811026962528 -0.56079639090933442 -0.08284314491514691 196 144 87 1.0645186642741546 36 1059 34 1521 10 687 35 1791
6478 2.2162969448346077 2.30443978625149 -0.83656656924848261 119 146 163 0.075792646081212417 25 1714 34 1570
6480 1.0758793574990386 -0.48907733967958089 0.31095411957082258 191 140 85 1.4674982567671322 25 1076 34 1630 9 1830 11 569 10 531 4 1025 4 1028
6482 0.559571364961155 -0.39109148691290818 0.60870818827025519 215 158 103 1.5763742897188304 24 1368 32 1029 34 1679
6483 0.78207665406596538 -0.42514038359748407 0.59562211191848236 235 186 120 0.70892820019644642 32 894 34 1685 11 827
6484 -0.13830603105312039 -0.29125541973303293 0.33100914807630716 234 190 103 0.21283680920606254 25 2091 34 1822 11 2150
6485 -0.21999089897663188 -0.2637899032447355 0.32244665857133359 244 206 123 0.41876617745336703 19 1606 34 1825
6486 0.26907744173178971 -0.50105710988164642 0.19016742591165875 193 163 75 0.27335923228408032 36 1818 34 1859
6488 0.90840866922259678 -0.58291624333642444 -0.027496529977968198 165 113 38 0.77554315009284636 36 1965 34 1915 10 1724
6489 0.73587657537912743 -0.56360452101015324 0.39266151204874578 209 158 75 0.22348630389429053 25 2154 34 1952 11 2114 10 1422
6490 -0.13830603105312039 -0.29125541973303293 0.33100914807630716 234 190 103 0.21283680920606254 25 1920 34 1986 11 2143
6491 0.1795097164450995 -0.43124401018683878 0.32699672687884629 240 204 118 0.54443952046549071 24 758 36 2417 34 2001
6492 1.1536301317376849 -0.42814382136335027 0.32829837357360092 140 97 46 0.48126904594667019 25 1063 34 2008 9 839 11 908
6494 -0.010030283458966338 -0.35485229585266509 0.28150219400883125 245 201 124 0.19166972004433366 24 1928 34 2021
6495 -0.2213999586508984 -0.28796942596591746 0.2672083383811914 209 185 97 0.30738615314899337 24 1702 25 2115 34 2023
6496 0.83077920098072799 -0.60476341403301703 0.19312197614256191 175 124 46 0.25323118513137066 36 1234 34 2092 25 1438
6497 0.60029503294652597 -0.60453002856113547 0.18965886902345 216 176 89 1.0260152835836349 25 2269 36 1756 34 2098 4 1301
6498 -1.1329149534896901 0.046749163225186463 0.08215893796575896 146 108 54 1.07388721683946 13 1737 22 518 34 2108
6499 0.72206812551671995 -0.61176812689758564 0.17491127964164871 211 162 85 0.50323879275661376 36 1767 34 2111 25 2274 10 1514
6500 -0.54997245036922382 -0.2032333974368532 0.081989211306846527 212 201 111 0.715357197883145 24 1115 36 2402 34 2127
6501 1.0600182641364759 -0.53570888428542851 0.098368894070832061 181 129 72 0.69307945897098577 36 937 34 2145 11 594 10 730 4 668
6502 1.06926020867345 -0.53116362646792814 0.072529197725916011 176 129 75 0.66987117324631662 36 1171 34 2156 11 1083 10 728 4 678
6503 0.94206287688841117 -0.57871185798458258 0.055012795859002706 157 105 29 0.50534026235238982 36 1854 34 2165 10 1109
6504 0.78256814260009033 -0.61392480368034708 0.041580384362867609 176 124 51 0.69544668459668924 25 1764 36 1845 34 2179
6505 0.93068351769597957 -0.57634521648193704 0.037815341226694457 191 134 68 0.98921145673667432 36 1860 34 2180 10 1426 11 1517 4 679
6506 -0.034591021159753627 -0.33256326517796564 -0.0078112269622198915 234 199 116 0.73982501144970458 22 1778 23 1061 34 2184
6507 0.68002170579142796 -0.61663950338728613 0.0031432213242435503 183 139 50 0.60484688571095679 36 1870 34 2220 25 2318 10 1130
6508 1.192276436129474 -0.41194842987462299 -0.056355641852656652 0 0 0 0.90253087948137456 22 528 24 1494
6509 0.7841240268045242 -0.60994241651795433 -0.022152013910735763 171 117 41 0.37193663922334702 36 1476 34 2235 10 1143
6510 0.90904532078519518 -0.58136625908962825 -0.027504248381168883 165 113 38 0.73588473661300524 36 1887 34 2236 11 1536 10 1381
6511 0.39052482237645969 -0.53895643931723647 -0.056381533590932287 174 125 59 0.29342727419300624 24 1475 36 2130 34 2247
6512 0.99219995773056957 -0.53089311141819406 -0.14262224592882158 155 106 44 0.3110016309426869 36 2183 34 2277 4 563
6513 1.1462294897881264 -0.43044077864136054 0.34307390363918189 182 140 81 0.90334780493563294 25 2121 34 2308 9 1813 11 1060 10 873 4 1812
6514 -0.058495257322545402 -0.30522487482216476 0.34997440573560634 223 188 91 0.62387207850896143 13 583 25 1359 34 859 32 893 19 748
6515 -0.26070751640639134 -0.28625404468755034 0.22188276327610557 211 174 92 0.34496301268304097 24 841 22 756 34 894 13 723 25 1084 36 1187
6516 0.41924712971308187 -0.55476096263551744 0.24641556376899199 87 66 22 0.85303528593590949 32 1475 24 421 34 278 22 734 25 400 36 297 11 582 10 776 4 1013
6517 0.67919052387682699 -0.59884121794553236 0.27166493942478576 192 151 71 1.3239352911766165 22 729 36 233 34 305 13 1268 24 1081 25 279 11 220 10 352 4 194
6518 0.24437148142092413 -0.46564202075700478 -0.073556838798285118 186 147 59 0.64491274210429972 16 1480 23 744 25 1576 22 305 36 475 34 383 35 377 13 484 4 1424 7 963
6519 0.31454596557759495 -0.52665607972702055 0.071296010513498848 189 145 61 1.4298557723266336 13 917 23 1124 24 783 22 405 34 412 25 1460 35 1544 36 401 35 1778
6520 0.19001151950964351 -0.43438571018923822 -0.075768177421815464 243 206 120 0.48133305714523422 16 1490 23 1065 34 1004 35 1297 13 940
6521 0.27936768503418485 -0.51077506055131716 0.08142521384701959 144 119 57 0.39730686721303232 13 648 24 381 22 403 34 414 35 838 36 400 10 729 4 959
6522 -0.35985042880607848 -0.24753321153787322 0.033922110376728695 120 105 52 0.37553823881426601 23 1036 36 1063 34 1345 24 893 35 1356
6523 0.31827606370272898 -0.52885105486671102 0.1257123969067897 188 146 64 0.54529943609491083 13 645 23 1589 24 388 34 422 25 801 36 414 10 734 11 1071 4 675
6524 0.60280153138731563 -0.59543435455723925 0.2577393297944125 220 182 89 0.69392344307215548 36 371 34 371 13 1382 25 403
6525 -0.17713851901334132 -0.31337458366816817 0.21468731082497966 190 164 71 0.78840278741277348 13 445 25 643 36 915 34 461 32 925 24 490 10 647 11 916
6526 0.17811202874973514 -0.35381513104805762 0.43357235374015024 129 107 49 0.86856684303397702 19 357 24 506 34 481 22 1092 32 1366
6527 0.33969074544174382 -0.52931479200021159 0.22098430774390512 210 171 77 0.89534162787583915 13 463 24 409 22 372 34 491 23 1421 25 399 11 530 10 768 4 1005
6528 0.2728402978857557 -0.49798393322125833 -0.016775975298018136 216 171 81 0.48123755471348645 23 1153 24 906 34 630 35 1793 13 1621 22 933 36 599
6529 0.41659253084872172 -0.4284589574624682 -0.3359498966348915 227 183 99 1.6978010181048708 16 1112 24 1853 36 702 34 1274 16 1502 35 1229 23 951 22 1025 36 1087 28 1019 4 1566
6530 0.69952280841620174 -0.59206484576285701 0.31843446988109769 122 88 38 0.94525922061861967 13 1342 25 657 24 2005 34 876 32 933 36 1265 11 579 22 1436
6531 0.5818304133029123 -0.59915034970158576 0.21576970126113809 197 152 78 1.0806697126163245 13 1409 24 1613 34 915 22 1072 36 373 25 677 11 587 10 762 4 1012
6532 -0.66111574363753844 -0.16311323936766781 0.14855775946447966 116 107 50 0.45811628838980267 25 632 36 595 34 918 22 786 24 411
6533 0.10364421581007421 -0.41811055222524707 0.10386509330414094 227 186 112 0.54069522453951857 13 1397 25 1150 22 882 34 1058 19 1408 36 1861
6534 -0.1591209285242825 -0.2612337775428919 -0.059905286412985786 194 170 69 0.3491479437116744 24 1182 22 817 36 964 34 2217 35 1238 23 913 4 1814
6536 0.10442475456620948 -0.41745220743011036 0.066609639823324268 231 199 119 0.58892907391638494 22 793 36 1672 34 1078 23 1098 25 1431
6537 0.10994865608156917 -0.38878941101503739 0.3229570769791057 193 160 70 0.19106493482565323 19 1155 24 1040 34 1298 13 1100 25 1057
6538 0.27240522889983199 -0.50237178164563856 0.22976073088524279 220 181 95 0.27426178043214339 13 1768 24 869 22 1468 34 1319 25 1136 36 1761
6539 0.72197362031222778 -0.55408173771880997 0.41564040637800614 179 132 63 0.84451145597549027 19 1413 13 1220 34 1481 32 941 25 640
6540 0.2498349418333119 -0.35758341348263245 0.48934702603065183 235 188 104 0.42261269258005296 19 1612 24 1980 34 1795 18 1721 25 1106
6541 -0.4178290640024982 -0.15539242877455312 -0.10202810077608176 235 199 112 0.42984267051050545 23 790 24 528 34 2233 28 437 35 351 36 319 4 751 7 625
6542 0.62630139036697985 -0.60789609178897364 0.07969447560036419 123 94 49 1.5417352830724036 36 911 34 409 13 933 22 650 10 481 11 1094 4 543
6543 1.2788622751553145 0.10475027293317027 -0.39650343425832357 144 97 55 0.95948992654449627 22 98 34 53
6544 1.2346001798231567 -0.40945462102503627 -0.094490330060401473 0 0 0 2.478164859479147 13 650 22 252
6545 -0.30763731184866111 -0.17258352060956866 -0.10912619753497732 231 206 117 0.22065361611197865 35 537 34 988
6546 1.2677928395128326 1.0363229364362119 0.53737131160283369 223 186 114 2.9304713843566255 24 36 34 1198
6548 1.132546366326884 -0.42721737430687579 -0.017550485571547453 163 103 40 1.3660032756142375 12 10 9 6
6550 0.64426191674401412 -0.24927432624129608 0.71851192956504439 213 152 63 1.1540672912577918 12 194 9 88 11 276
6551 1.0060028904872131 -0.035017407067316153 0.73190736278057311 250 216 92 0.021426046487097086 8 156 9 89
6552 0.97105948229007066 -0.068783741449971181 0.74303142478191175 235 172 77 0.79824354012426069 8 154 32 212 9 90
6553 0.67591791592346651 -0.119857427311506 0.78263628351480963 254 219 93 0.65264589208419788 12 111 9 93 11 270
6554 1.3294393523907819 -0.13636769629017997 0.42834914284653181 159 94 37 0.47383148192584307 12 109 9 98 11 111
6555 1.3306006817602072 -0.13504906942074468 0.42528563210485704 159 94 37 1.0221285153688631 12 78 9 114 11 123 10 120
6556 1.1309647456936862 -0.40966474392624541 0.39339098454127797 188 125 44 0.86310388011378603 25 178 9 119 10 64
6558 1.1231072671288596 -0.29475369736038104 0.53611157715736335 192 140 39 1.2669178442683133 12 208 25 536 9 145 11 184
6559 1.1670602987346768 -0.32451075660461759 0.47382038964928552 201 167 44 0.45454027650027767 25 484 9 148 10 232
6560 0.47086176595688767 -0.2134581499890954 0.69517648003236421 241 198 85 0.18250112831246379 12 339 9 152
6561 0.58477399086002746 -0.20309270285976233 0.73314086567427006 213 154 58 1.2476927976036507 12 258 9 154 11 274
6562 0.59104526026792825 -0.093917438233298789 0.78143730240399811 219 162 66 0.29260321234227499 32 213 9 160 11 365
6563 -1.5865733103448008 0.08202312291302985 0.074934492484439966 27 23 40 1.77650769845214 12 145 9 168
6564 1.1119509542298844 -0.24057464165415265 0.595951500465011 200 135 55 1.494997409414224 12 963 11 786 10 1301
6565 0.12998867033811828 0.51115012632469892 0.40910117540719848 110 182 209 0.82907976958969454 33 730 9 174
6566 1.1659830003739939 -0.32502318911034689 0.47312003897000499 201 167 44 0.40062996852767635 25 531 9 200 11 181
6567 1.2154163361337706 -0.30587857771841132 0.44513643814151949 201 156 55 1.3817054317488799 12 467 9 202 10 234 4 630
6568 1.3432124386574689 -0.21411030655888919 0.35503171620922874 190 155 61 0.60233530361048315 12 331 9 209 11 177 10 107
6569 1.2482152866477252 -0.17360484081099631 0.50883052689705033 174 112 37 0.58151838208441087 12 330 9 229 11 391
6570 0.45103959869246013 -0.32326662822008934 0.62828536977419724 222 174 72 0.93228371901224794 12 584 9 250 11 288
6571 0.93456045482157557 -0.063486209159183349 0.75892927195172677 255 214 101 0.23025973800979585 8 634 32 411 9 272
6572 0.5736956283923792 -0.17432486179813522 0.74383787719836203 242 192 80 0.6429050788711429 12 472 9 287 11 370
6573 1.2008992336402335 -0.16361236755090475 0.56568290514531427 214 162 64 1.1684914923245151 12 893 9 289 11 554 10 598
6574 0.68387285842211598 -0.21446275623982658 0.74696109568328151 239 190 62 0.33953176682879543 12 340 9 290 11 272
6575 1.2501637074357448 -0.17446692911560019 0.51229103540825538 174 112 37 0.84078745101222685 12 225 9 295 11 438 10 583
6576 1.156759220118206 -0.23137069130226373 0.56432725067982081 215 178 60 0.93428996163444644 12 449 25 467 9 303 11 257 10 305
6577 1.1402785350901861 -0.30652550116865029 0.51472003239954678 211 174 59 0.54982886679739296 32 857 9 313 11 293 10 309
6578 1.1685949587845295 -0.30159650541795802 0.49531463739856452 182 131 31 0.76463654363577083 12 978 9 314 10 384
6579 1.3305848277070009 -0.25254642497764124 0.33407618842802156 155 99 36 0.95912013854321221 12 336 9 315 11 312 10 246
6580 1.2840682067040836 -0.27101297519861001 0.38359437805556496 163 101 24 0.51000651129063024 12 951 9 317 11 234 10 321
6581 1.3208347680772903 -0.28543069358694662 0.3064452479777191 152 95 32 0.60045360553217042 12 952 9 323 11 322 10 254
6582 1.1231554524295293 -0.34837207883953669 0.48539859015054831 218 169 64 0.63372238528951241 12 581 9 324 11 298 10 212
6583 1.1655154450492069 -0.38736666716410562 0.38691570332334257 180 121 32 0.78493575397875959 12 1285 9 331 11 152 10 242
6584 0.75898258482094194 -0.48336984831314911 0.51755808524453939 252 199 104 0.86804356976484931 12 1020 9 334 10 114
6585 0.67197938549860781 0.64405149154855956 0.45361592524724104 221 191 135 1.4190957637862498 12 1144 9 339
6586 1.1655154450492069 -0.38736666716410562 0.38691570332334257 180 121 32 0.78493575397875959 12 1000 9 349 11 170 10 206
6587 1.2505548583599189 0.041825057276981714 0.56335362080864182 170 108 35 0.70744296411927543 8 967 12 237 9 374
6588 1.3614924920605442 -0.22461705763028972 0.30558486114320571 140 97 34 0.60196216708824302 12 930 9 390 11 469 10 540
6590 1.3812744319995562 -0.14606839624959861 0.34522385665377964 153 103 34 0.51983854523764261 12 871 9 420 11 295
6591 1.2278927121549974 -0.19150355443058853 0.52259044054134629 215 164 69 1.0013236165616761 12 896 9 426 11 793 10 586
6592 1.1642943666688073 -0.21543864166725724 0.57991099539269375 190 127 44 1.1237287302851557 25 890 9 427 10 649 11 384
6593 -1.352162565725882 0.12904195963186987 0.080766233673224358 102 180 208 1.0867061248782623 12 820 9 433 11 874 10 1508
6594 1.4061146292220292 -0.072474420962797381 0.3437236569999923 176 129 59 0.32628623728745043 12 1368 9 440 11 497
6595 1.3677840097068339 -0.084465798507021794 0.39991818079139596 186 139 61 0.29559864104983835 12 486 9 441 11 242
6596 -1.5870730820725991 0.29216764618969765 0.19946670958024465 110 120 122 1.3583693804290997 12 554 9 451 11 294
6597 0.64085930748985354 -0.058822433543689268 0.7970471154352059 255 213 99 0.64348783607844662 12 393 9 468 11 742
6599 1.1824772492358369 -0.35437397355366262 0.41269162363821854 178 120 36 0.91881328078228164 12 1825 9 500 11 470 10 456
6600 1.3513429843897633 -0.27003914278926144 0.26233788831483296 186 144 70 0.8305777128510099 12 942 9 506 11 326 10 341 4 660
6601 1.1351885438747498 -0.41931292026167655 0.36639417463429497 186 129 42 0.49274828891563976 25 1036 9 518 11 418 34 1983 10 551
6602 1.0380360685933079 -0.28067363621154029 0.61700775343380776 232 174 67 1.0473669410475868 12 917 25 1319 32 1262 9 527 11 385
6603 1.2663672604642524 -0.1440417244059583 0.49992412202640601 206 149 62 0.24598472638274482 12 666 9 537 11 440
6604 1.3677840097068339 -0.084465798507021794 0.39991818079139596 186 139 61 0.29559864104983835 12 405 9 540 11 243
6605 1.458343162176345 0.0068200661194469658 0.27670101594121888 151 116 62 0.80938294432622371 12 819 9 543 11 654
6606 1.1732223913741775 -0.26577123932054303 0.52329541361692833 218 175 68 0.79258860472652748 12 966 32 952 9 564 11 500 10 584
6608 1.058925109711359 -0.19230789517765323 0.65304936624243004 232 178 75 0.52634390576977175 12 1271 9 589 11 769
6609 0.61624262585888789 -0.061098448754174695 0.38626624656069919 196 134 47 1.3072586459159909 25 1168 9 591
6610 1.238313690661961 -0.15325023084328621 0.52560888867640354 213 157 70 0.69505527826935343 12 667 9 592 11 644
6611 1.1305850896354421 -0.37028323810672825 0.45352584336899893 185 129 40 1.2726079601963722 12 1834 25 766 9 617 11 428 10 570 4 1262
6612 1.0704999533797068 -0.021247724309597038 0.70905443714073157 215 169 50 0.5697998068215443 12 993 32 1090 9 696
6613 0.85461099398404028 -0.11934069718965046 0.76094143839219763 254 195 88 1.5583446499979605 8 1713 25 1846 9 718
6614 1.3739754055208577 -0.045525461728970262 0.40967022490019434 177 126 50 0.55542171434007714 12 841 9 729 11 1117
6615 1.058925109711359 -0.19230789517765323 0.65304936624243004 232 178 75 0.52634390576977175 12 948 9 744 11 638
